ply
format ascii 1.0
element vertex 1520
property float x
property float y
property float z
property float nx
property float ny
property float nz
end_header
-0.19005 0.3252 0.05963 0 0 0
-0.19253 0.34177 0.05577 0 0 0
-0.17717 0.38133 0.17946 0 0 0
-0.18066 0.37524 0.16829 0 0 0
-0.18539 0.39512 0.16216 0 0 0
-0.15363 0.1642 0.17194 0 0 0
-0.18289 0.37853 0.16344 0 0 0
-0.1716 0.33674 0.17984 0 0 0
-0.18246 0.39465 0.16975 0 0 0
-0.16267 0.24846 0.17509 0 0 0
-0.16881 0.31982 0.18178 0 0 0
-0.15574 0.19658 0.17675 0 0 0
-0.17447 0.35044 0.17667 0 0 0
-0.14693 0.1036 0.17016 0 0 0
-0.18256 0.36818 0.161 0 0 0
-0.14997 0.12554 0.16919 0 0 0
-0.18113 0.36143 0.1626 0 0 0
-0.18388 0.37292 0.15904 0 0 0
-0.2079 0.3866 -0.00499 0 0 0
-0.18982 0.37282 -0.10343 0 0 0
-0.15757 0.00861 0.03761 0 0 0
-0.00334 -0.01183 0.178 0 0 1
0.07851 -0.00921 0.178 0 0 0
0.11286 -0.00366 0.178 0 0 0
0.05613 -0.00348 0.178 0 0 0
0.19715 -0.00108 0.178 0 0 1
0.02324 -0.01609 0.178 0 0 0
0.11718 -0.00104 0.178 0 0 0
-0.03372 -0.0153 0.178 0 0 0
0.1135 -0.01644 0.178 0 0 0
0.09161 -0.00406 0.178 0 0 1
0.14517 -0.01476 0.178 0 0 0
-0.06127 -0.01637 0.178 0 0 0
-0.20293 0.39732 0.08376 0 0 0
-0.18687 0.27913 -0.1032 0 0 0
-0.19294 0.36312 -0.12092 0 0 0
-0.1875 0.29124 -0.10696 0 0 0
-0.19404 0.3446 -0.10485 0 0 0
-0.18965 0.31557 -0.11013 0 0 0
-0.18577 0.38675 -0.10978 0 0 0
-0.20565 0.36967 -0.02365 0 0 0
-0.16686 0.17719 -0.14039 0 0 0
0.03876 -0.01781 0.12994 0 1 0
0.13369 -0.01781 0.06557 0 1 0
0.12761 -0.01781 -0.00392 0 1 0
0.10485 -0.01781 0.09278 0 1 0
0.10309 -0.01781 0.07599 0 0 0
0.15538 -0.01781 -0.03532 0 1 0
-0.0134 -0.01781 0.09754 0 1 0
0.10562 -0.01781 0.04562 0 1 0
0.14422 -0.01781 0.11733 0 1 0
-0.01619 -0.01781 0.09182 0 1 0
0.13488 -0.01781 -0.06784 0 1 0
0.03189 -0.01781 0.12068 0 1 0
-0.02418 -0.01781 0.05652 0 1 0
0.03456 -0.01781 0.08901 0 1 0
0.08314 -0.01781 0.11492 0 1 0
0.0123 -0.01781 0.11238 0 1 0
0.13948 -0.01781 0.12459 0 1 0
0.105 -0.01781 0.05738 0 1 0
0.08722 -0.01781 0.02192 0 1 0
0.08058 -0.01781 0.01626 0 1 0
-0.04727 -0.01781 0.15121 0 0 1
0.01299 -0.01781 0.06618 0 1 0
0.06263 -0.01781 -0.01279 0 1 0
-0.02087 -0.01781 0.07199 0 1 0
0.14474 -0.01781 0.07758 0 1 0
0.12809 -0.01781 0.06681 0 1 0
0.14676 -0.01781 0.0633 0 1 0
0.02728 -0.01781 0.04368 0 1 0
0.09791 -0.01781 -0.02388 0 1 0
0.12918 -0.01781 0.07457 0 0 0
-0.00418 -0.01781 0.14669 0 0 0
0.0225 -0.01781 0.09197 0 1 0
0.10966 -0.01781 0.10169 0 1 0
0.14737 -0.01781 0.10628 0 1 0
0.03657 -0.01781 0.12388 0 1 0
0.09769 -0.01781 -0.00771 0 1 0
0.05285 -0.01781 0.07232 0 1 0
0.01706 -0.01781 0.08917 0 1 0
0.09041 -0.01781 0.04738 0 0 0
0.14913 -0.01781 -0.04156 0 1 0
0.01745 -0.01781 0.1508 0 0 0
0.10223 -0.01781 0.10089 0 1 0
0.14109 -0.01781 -0.02353 0 1 0
0.03188 -0.01781 0.11373 0 1 0
-0.02705 -0.01781 0.12992 0 1 0
0.07095 -0.01781 0.04348 0 1 0
-0.08204 -0.01781 0.143 0 0 1
0.08396 -0.01781 0.13063 0 1 0
0.0601 -0.01781 -0.00319 0 1 0
-0.03157 -0.01781 0.06592 0 1 0
0.11593 -0.01781 0.06025 0 1 0
-0.0614 -0.01781 0.13694 0 1 0
0.07009 -0.01781 0.07641 0 1 0
0.03292 -0.01781 -0.00074 0 0 0
0.13731 -0.01781 0.08306 0 1 0
0.05411 -0.01781 0.06409 0 1 0
0.0506 -0.01781 -0.00835 0 1 0
0.15927 -0.01781 -0.07233 0 1 0
0.06059 -0.01781 0.09387 0 1 0
-0.04838 -0.01781 0.10464 0 1 0
0.02529 -0.01781 0.03471 0 1 0
0.15156 -0.01781 0.12099 0 1 0
0.1626 -0.01781 0.13222 0 1 0
0.14972 -0.01781 -0.1012 0 1 0
-0.08505 -0.01781 0.15205 0 0 1
0.04817 -0.01781 0.13978 0 1 0
0.14345 -0.01781 0.00623 0 1 0
0.02401 -0.01781 0.13859 0 1 0
0.01778 -0.01781 0.07 0 1 0
0.0724 -0.01781 0.01157 0 1 0
0.00926 -0.01781 0.14605 0 0 1
0.10831 -0.01781 0.08527 0 0 0
0.06368 -0.01781 0.0868 0 1 0
0.12881 -0.01781 -0.09064 0 1 0
-0.1051 -0.01781 0.15806 0 0 1
-0.02322 -0.01781 0.1118 0 1 0
0.09522 -0.01781 0.0868 0 1 0
0.0356 -0.01781 0.06104 0 1 0
-0.02719 -0.01781 0.10312 0 1 0
0.1463 -0.01781 0.1133 0 1 0
0.1045 -0.01781 -0.02207 0 1 0
0.16715 -0.01781 0.12994 0 1 0
0.08465 -0.01781 0.08057 0 1 0
0.16614 -0.01781 -0.08433 0 1 0
0.10212 -0.01781 0.00768 0 1 0
0.05378 -0.01781 0.09893 0 1 0
0.11302 -0.01781 0.04937 0 1 0
0.01904 -0.01781 0.07768 0 1 0
-0.0304 -0.01781 0.1548 0 0 0
0.15254 -0.01781 -0.05832 0 1 0
0.1356 -0.01781 0.00879 0 1 0
-0.04181 -0.01781 0.14803 0 0 1
0.15591 -0.01781 0.1276 0 1 0
0.09293 -0.01781 0.06238 0 0 0
0.08593 -0.01781 -0.05646 0 1 0
0.13353 -0.01781 -0.07455 0 1 0
-0.07044 -0.01781 0.12722 0 1 0
0.04795 -0.01781 0.09968 0 1 0
0.07532 -0.01781 -0.04746 0 1 0
0.06235 -0.01781 0.01404 0 0 0
-0.00737 -0.01781 0.15279 0 0 0
-0.03064 -0.01781 0.11703 0 1 0
0.00777 -0.01781 0.08903 0 1 0
0.16859 -0.01781 -0.12055 0 1 0
-0.02296 -0.01781 0.1237 0 1 0
0.14733 -0.01781 -0.07668 0 1 0
0.10673 -0.01781 -0.06108 0 1 0
0.10891 -0.01781 -0.07281 0 1 0
0.14508 -0.01781 -0.11099 0 1 0
0.00954 -0.01781 0.02635 0 1 0
0.14799 -0.01781 -0.0904 0 1 0
0.13148 -0.01781 -0.00862 0 1 0
0.00423 -0.01781 0.09917 0 1 0
0.06989 -0.01781 -0.03069 0 1 0
0.03192 -0.01781 0.09996 0 1 0
0.09903 -0.01781 0.10968 0 1 0
0.16525 -0.01781 0.09329 0 1 0
0.11452 -0.01781 -0.04674 0 1 0
0.11908 -0.01781 0.0278 0 1 0
-0.0092 -0.01781 0.05008 0 1 0
0.15417 -0.01781 0.01576 0 1 0
-0.1415 -0.00803 -0.12829 0 0 0
-0.19701 0.3839 -0.05719 0 0 0
-0.16387 0.1547 -0.14188 0 0 0
-0.20068 0.40018 0.09715 0 0 0
-0.12628 -0.05434 -0.16568 0 0 0
-0.14356 -0.08958 -0.17222 0 0 0
-0.14198 -0.05326 -0.17163 0 0 0
-0.12329 -0.04778 -0.16455 0 0 0
-0.14475 -0.07798 -0.17268 0 0 0
-0.14155 -0.00987 -0.17146 0 0 0
-0.14405 -0.12767 -0.17241 0 0 0
-0.15421 -0.19636 -0.17626 0 0 0
-0.15296 -0.14212 -0.17578 0 0 0
-0.16296 -0.30681 -0.17957 0 0 0
-0.16291 -0.31385 -0.17955 0 0 0
-0.16206 -0.32891 -0.17923 0 0 0
-0.1551 -0.16342 -0.17659 0 0 0
-0.16744 -0.37514 -0.18126 0 0 0
-0.14058 0.00085 -0.1711 0 0 0
-0.14295 -0.06584 -0.17199 0 0 0
-0.16443 -0.34865 -0.18012 0 0 0
-0.13329 -0.1033 -0.16834 0 0 0
-0.15872 -0.06243 -0.02841 0 -1 0
-0.15177 -0.05264 -0.11367 0 0 0
-0.15199 -0.03463 -0.11294 0 0 0
-0.18171 0.26098 0.11554 0 0 0
-0.15067 -0.25768 0.17418 0 0 0
-0.13213 -0.11071 0.16385 0 0 0
-0.13786 -0.16 0.16862 0 0 0
-0.15678 -0.29706 0.17393 0 0 0
-0.16101 -0.32167 0.1727 0 0 0
-0.14433 -0.18038 0.15975 0 0 0
-0.13446 -0.1219 0.16221 0 0 0
-0.1524 -0.25312 0.16776 0 0 0
-0.1721 -0.38451 0.16876 0 0 0
-0.17039 -0.38315 0.17271 0 0 0
-0.16378 -0.34723 0.17568 0 0 0
-0.16898 -0.38375 0.17669 0 0 0
-0.16635 -0.35758 0.17308 0 0 0
-0.14825 -0.23949 0.17323 0 0 0
-0.17129 -0.35252 0.15799 0 0 0
-0.16412 -0.31841 0.16317 0 0 0
-0.14239 -0.17406 0.16231 0 0 0
-0.19862 0.37558 -0.09845 0 0 0
-0.15587 0.17885 -0.12758 0 0 0
-0.17322 0.37309 0.15031 0 0 0
-0.15885 0.24305 0.14428 0 0 0
-0.16325 0.2878 0.14613 0 0 0
-0.16825 0.28686 0.14823 0 0 0
-0.15089 0.17587 0.1753 0 0 0
-0.15617 0.24346 0.1773 0 0 0
-0.1635 0.30182 0.18008 0 0 0
-0.16557 0.37078 0.18086 0 0 0
-0.17402 0.38624 0.18406 0 0 0
-0.1438 0.08633 0.17262 0 0 0
-0.16138 0.34693 0.17928 0 0 0
-0.15144 0.15484 0.14118 0 0 0
-0.14478 -0.05989 -0.13659 0 0 0
-0.14528 -0.04518 -0.13496 0 0 0
-0.16189 -0.02522 0.0691 0 0 0
-0.16056 -0.02293 0.0771 0 0 0
-0.13422 -0.01781 -0.00225 0 0 0
-0.13182 -0.01781 0.09477 0 0 0
-0.13102 -0.01781 0.02017 0 0 0
-0.12687 -0.01781 0.16678 0 0 0
-0.15329 0.18888 -0.14215 0 0 0
-0.19971 0.37029 -0.00489 0 0 0
-0.18295 0.22175 -0.01967 0 0 0
-0.18815 0.26988 -0.02182 0 0 0
-0.17989 0.19402 -0.02038 0 0 0
-0.19474 0.32796 -0.01502 0 0 0
-0.16063 0.15999 -0.14484 0 0 0
-0.13979 -0.0561 0.1534 0 0 0
0.15046 -0.06243 0.14459 0 -1 0
-0.07143 -0.06243 0.1638 0 0 0
-0.05964 -0.06243 0.16324 0 -1 0
0.05882 -0.06243 0.16378 0 0 0
0.10925 -0.06243 0.16548 0 0 0
0.11623 -0.06243 0.15096 0 -1 0
-0.03492 -0.06243 0.15872 0 -1 0
0.10682 -0.06243 0.15801 0 -1 0
0.14477 -0.06243 0.15613 0 -1 0
0.16702 -0.06243 0.16079 0 -1 0
0.11077 -0.06243 0.15987 0 -1 0
-0.09493 -0.06243 0.16388 0 -1 0
0.07653 -0.06243 0.16027 0 -1 0
-0.16193 -0.06243 -0.04945 0 0 0
-0.20149 0.38624 -0.00386 0 0 0
-0.18296 0.40222 0.1474 0 0 0
-0.18677 0.40179 0.11268 0 0 0
0.20068 -0.05878 0.09879 0 0 0
0.20068 -0.05276 0.12208 1 0 0
0.20068 -0.0533 -0.04906 0 0 0
0.20068 -0.05747 0.07769 0 0 0
0.20068 -0.0487 0.10076 1 0 0
0.20068 -0.03937 0.1001 1 0 0
0.20068 -0.05642 -0.02976 1 0 0
0.20068 -0.04221 0.04604 1 0 0
0.20068 -0.02766 0.12377 0 0 0
0.20068 -0.03985 0.07249 1 0 0
0.20068 -0.04301 0.05496 1 0 0
0.20068 -0.02594 0.10337 0 0 0
0.20068 -0.04524 0.06261 1 0 0
0.20068 -0.05667 -0.06632 0 0 0
0.20068 -0.03133 0.08268 0 0 0
0.20068 -0.05317 0.03279 1 0 0
0.20068 -0.04541 0.01149 1 0 0
0.20068 -0.04 0.04229 0 0 0
-0.19557 0.33826 0.02383 0 0 0
-0.20421 0.3939 -0.07447 0 0 0
0.19813 -0.16591 -0.16572 0 0 -1
0.1829 -0.12631 -0.16572 0 0 -1
0.18356 -0.07177 -0.16572 0 0 -1
0.17473 -0.06166 -0.16572 0 0 0
0.19024 -0.11931 -0.16572 0 0 -1
0.19622 -0.30188 -0.16572 0 0 0
0.18622 -0.23572 -0.16572 0 0 -1
0.1926 -0.18397 -0.16572 0 0 -1
0.19879 -0.26031 -0.16572 0 0 0
0.20058 -0.19115 -0.16572 0 0 -1
0.17595 -0.08332 -0.16572 0 0 -1
0.19917 -0.20221 -0.16572 0 0 0
0.20055 -0.13108 -0.16572 0 0 0
0.19159 -0.0893 -0.16572 0 0 0
0.18004 -0.05717 -0.16572 0 0 -1
0.19946 -0.12417 -0.16572 0 0 0
-0.17128 0.15238 0.05711 0 0 0
-0.16443 -0.01781 0.00547 0 0 0
-0.17872 0.17665 0.0787 0 0 0
-0.17685 0.39858 0.13996 0 0 0
-0.1637 -0.02284 0.05784 0 0 0
-0.16593 -0.02424 0.03541 0 0 0
-0.1782 0.19786 -0.04439 0 0 0
-0.19109 0.31934 -0.04925 0 0 0
-0.18909 0.29951 -0.04739 0 0 0
-0.18334 0.24088 -0.04028 0 0 0
-0.19848 0.37024 -0.03118 0 0 0
-0.19588 0.34841 -0.03312 0 0 0
-0.19905 0.35085 0.07398 0 0 0
-0.20226 0.36469 0.05952 0 0 0
-0.18806 0.25018 0.07113 0 0 0
-0.19329 0.29564 0.07012 0 0 0
-0.19096 0.27357 0.06876 0 0 0
-0.18625 0.23255 0.06967 0 0 0
-0.19617 0.31376 0.06271 0 0 0
-0.20197 -0.40818 0.18956 0 0 0
-0.1984 -0.40818 0.17066 0 -1 0
-0.13381 0.01029 0.05512 0 1 0
-0.13362 0.01029 0.1022 0 1 0
-0.1322 0.01029 0.15633 0 0 0
-0.1311 0.01029 0.14551 0 0 0
-0.16401 0.1531 -0.11005 0 0 0
-0.19122 0.39584 0.09308 0 0 0
-0.19015 0.39321 0.09639 0 0 0
-0.18326 0.17882 0.03898 0 0 0
-0.20078 0.38046 0.00591 0 0 0
-0.09851 -0.06019 -0.16572 0 0 0
0.10688 -0.06152 -0.16572 0 0 -1
-0.03798 -0.03787 -0.16572 0 0 -1
0.01148 -0.05089 -0.16572 0 0 -1
-0.02103 -0.05093 -0.16572 0 0 -1
-0.0647 -0.03099 -0.16572 0 0 -1
-0.06106 -0.04487 -0.16572 0 0 -1
0.08943 -0.05357 -0.16572 0 0 0
-0.11199 -0.03616 -0.16572 0 0 -1
-0.04852 -0.05606 -0.16572 0 0 -1
-0.07728 -0.05178 -0.16572 0 0 -1
0.08448 -0.05735 -0.16572 0 0 0
-0.077 -0.03685 -0.16572 0 0 -1
-0.0693 -0.04145 -0.16572 0 0 -1
-0.10408 -0.04853 -0.16572 0 0 -1
0.05526 -0.05338 -0.16572 0 0 0
0.00241 -0.06147 -0.16572 0 0 0
-0.07423 -0.04139 -0.16572 0 0 -1
-0.147 0.09759 0.16807 0 0 0
-0.17006 0.26249 0.16007 0 0 0
-0.14552 0.08278 0.16722 0 0 0
-0.15154 0.09044 0.15378 0 0 0
-0.15227 0.11107 0.15846 0 0 0
-0.17835 0.32982 0.15979 0 0 0
-0.17911 0.33478 0.15938 0 0 0
-0.15405 0.10295 0.15117 0 0 0
-0.16694 0.24056 0.16128 0 0 0
-0.17383 0.29105 0.15928 0 0 0
-0.15734 0.16662 0.1629 0 0 0
-0.15954 0.1773 0.16053 0 0 0
-0.14838 0.07472 0.15708 0 0 0
-0.18712 0.39219 0.15666 0 0 0
-0.16043 0.1638 0.15383 0 0 0
-0.19746 -0.40734 0.19293 0 0 0
-0.17575 -0.38797 0.18472 0 0 0
-0.16488 -0.28883 0.1806 0 0 0
-0.17553 -0.3542 0.18463 0 0 0
-0.1667 -0.32329 0.18129 0 0 0
-0.16289 -0.33881 0.17985 0 0 0
-0.1394 -0.13262 0.17096 0 0 0
-0.14672 -0.17747 0.17373 0 0 0
-0.17669 -0.40059 0.18507 0 0 0
-0.17896 -0.30493 0.18593 0 0 0
-0.1586 -0.28098 0.17822 0 0 0
-0.19141 -0.40481 0.19065 0 0 0
-0.11972 -0.02467 0.1635 0 0 0
-0.14736 -0.22303 0.17397 0 0 0
-0.12384 -0.0587 0.16507 0 0 0
-0.187 -0.35597 0.18898 0 0 0
-0.16604 -0.25033 0.18104 0 0 0
-0.17841 -0.35096 0.18572 0 0 0
-0.18943 0.38164 -0.09415 0 0 0
-0.17662 0.16044 -0.00796 0 0 0
-0.17597 0.15298 -0.00291 0 0 0
-0.15751 0.15354 -0.14471 0 0 0
-0.14993 0.16182 -0.14184 0 0 0
-0.14361 0.02937 -0.13945 0 0 0
-0.15306 0.08401 -0.14302 0 0 0
-0.14523 0.09804 -0.14006 0 0 0
-0.16818 0.33096 -0.14875 0 0 0
-0.15164 0.07738 -0.14249 0 0 0
-0.16357 0.29184 -0.147 0 0 0
-0.15727 0.20532 -0.14462 0 0 0
0.21339 -0.01135 0.09567 0 0 0
0.21339 -0.01373 -0.09169 0 0 0
0.21339 -0.0135 0.14717 0 0 0
0.21339 -0.00995 0.10057 1 0 0
0.21339 0.00088 0.14196 1 0 0
0.21339 -0.00874 0.02026 0 0 0
0.21339 -0.01358 0.17028 0 0 0
0.21339 0.00019 0.13515 1 0 0
0.21339 -0.00064 0.12751 1 0 0
0.21339 -0.00974 -0.02173 0 0 0
0.21339 -0.00125 0.09292 0 0 0
0.21339 -0.00249 0.03367 0 0 0
0.21339 -0.01667 -0.02752 0 0 0
0.21339 -0.00332 0.07341 1 0 0
-0.13987 0.14808 0.17113 0 0 0
-0.15427 0.29274 0.17658 0 0 0
-0.12997 0.02196 0.16739 0 0 0
-0.13958 0.07889 0.17103 0 0 0
-0.14877 0.2166 0.1745 0 0 0
-0.13909 0.11905 0.17084 0 0 0
-0.13928 0.10264 0.17091 0 0 0
-0.14788 0.22532 0.17417 0 0 0
-0.14695 0.23874 0.17381 0 0 0
-0.15933 -0.01781 -0.06454 0 0 0
-0.13645 -0.01643 0.14879 0 0 0
-0.17086 0.17669 0.12126 0 0 0
-0.17092 0.28879 0.12143 0 0 0
-0.1651 0.16407 0.09326 0 0 0
-0.13576 -0.01781 -0.05287 0 0 0
-0.13806 -0.01781 -0.0317 0 0 0
-0.14119 -0.01781 -0.08306 0 0 0
-0.13672 -0.01781 -0.13407 0 0 0
0.17001 -0.22258 -0.14986 -1 0 0
0.17001 -0.25738 -0.14009 0 0 0
0.17001 -0.22016 -0.14181 -1 0 0
0.17001 -0.13556 -0.14283 -1 0 0
0.17001 -0.08753 -0.15553 -1 0 0
0.17001 -0.09156 -0.16293 -1 0 0
0.17001 -0.10117 -0.15711 -1 0 0
0.17001 -0.21218 -0.14086 -1 0 0
0.17001 -0.17049 -0.15549 -1 0 0
0.17001 -0.26774 -0.14138 -1 0 0
0.17001 -0.32618 -0.14181 -1 0 0
0.17001 -0.39286 -0.13634 0 0 0
0.17001 -0.12188 -0.13723 -1 0 0
0.17001 -0.13707 -0.14866 -1 0 0
0.17001 -0.08665 -0.13841 -1 0 0
-0.18754 0.28389 0.09959 0 0 0
-0.19836 0.37219 0.09454 0 0 0
-0.19786 0.35965 0.08875 0 0 0
-0.19139 0.31648 0.09857 0 0 0
-0.19654 0.34492 0.08656 0 0 0
-0.19404 0.3227 0.08646 0 0 0
-0.19483 0.32829 0.08548 0 0 0
-0.1756 0.26628 0.09755 0 0 0
0.20068 -0.12935 0.15749 1 0 0
0.20068 -0.35029 0.14239 0 0 0
0.20068 -0.07452 0.14542 0 0 0
0.20068 -0.02419 0.16356 1 0 0
0.20068 -0.16991 0.14855 0 0 0
0.20068 -0.09862 0.15734 1 0 0
0.20068 -0.18771 0.14495 1 0 0
0.20068 -0.14505 0.14565 0 0 0
0.20068 -0.25579 0.14358 0 0 0
0.20068 -0.0751 0.15963 0 0 0
0.20068 -0.1758 0.15441 1 0 0
0.20068 -0.09951 0.15119 1 0 0
0.20068 -0.1188 0.141 0 0 0
0.20068 -0.06109 0.16442 0 0 0
0.20068 -0.0702 0.14556 0 0 0
0.20068 -0.05407 0.14226 0 0 0
-0.13676 -0.01107 -0.14457 0 0 0
-0.13761 -0.00773 -0.14163 0 0 0
-0.17813 0.25305 -0.08063 0 0 0
-0.18426 0.3001 -0.07703 0 0 0
-0.18393 0.29227 -0.07468 0 0 0
-0.17555 0.23603 -0.08345 0 0 0
-0.1766 0.23095 -0.07653 0 0 0
-0.18739 0.37422 0.14711 0 0 0
-0.17187 0.38241 0.14812 0 0 0
-0.12903 0.00132 0.17045 0 0 0
-0.14244 -0.06243 -0.09997 0 -1 0
-0.14071 -0.06243 -0.04506 0 -1 0
-0.13804 -0.06243 -0.0382 0 -1 0
-0.175 -0.20566 0.18343 0 0 0
-0.17072 -0.15957 0.17614 0 0 0
-0.17443 -0.18718 0.17748 0 0 0
-0.15591 -0.04892 0.1706 0 0 0
-0.19618 -0.34655 0.18432 0 0 0
-0.20929 -0.38777 0.16634 0 0 0
-0.18387 -0.23376 0.17134 0 0 0
-0.18596 -0.27906 0.1841 0 0 0
-0.17774 -0.20852 0.17735 0 0 0
-0.19309 -0.3283 0.18512 0 0 0
-0.1645 -0.11049 0.17278 0 0 0
-0.15809 -0.07526 0.17548 0 0 0
-0.19377 -0.33822 0.18733 0 0 0
-0.19273 -0.31726 0.18162 0 0 0
-0.19116 -0.29007 0.17481 0 0 0
-0.17539 -0.19314 0.17735 0 0 0
-0.19711 -0.36229 0.18822 0 0 0
-0.20615 -0.37796 0.17068 0 0 0
-0.17952 -0.22695 0.18008 0 0 0
-0.14567 0.01594 0.17148 0 0 0
-0.18831 0.23871 -0.06045 0 0 0
-0.18205 0.19286 -0.0705 0 0 0
-0.18257 0.1997 -0.07276 0 0 0
-0.19677 0.32417 -0.07086 0 0 0
-0.18742 0.2307 -0.0603 0 0 0
-0.18622 0.22387 -0.06429 0 0 0
-0.20411 0.36581 -0.04257 0 0 0
-0.19596 0.28939 -0.03657 0 0 0
-0.19978 0.32033 -0.03084 0 0 0
-0.20237 0.34887 -0.04013 0 0 0
-0.20085 0.32958 -0.03033 0 0 0
-0.1965 0.29069 -0.03052 0 0 0
-0.16732 -0.0584 0.00359 -1 0 0
-0.16716 -0.02868 0.00831 0 0 0
-0.19996 0.37927 0.08954 0 0 0
-0.20746 0.39363 -0.03874 0 0 0
0.20068 -0.38391 -0.13918 1 0 0
0.20068 -0.39759 -0.13527 0 0 0
0.20068 -0.35801 -0.14162 1 0 0
0.20068 -0.32231 -0.13901 0 0 0
0.20068 -0.16695 -0.13677 0 0 0
0.20068 -0.17931 -0.13553 0 0 0
0.20068 -0.36529 -0.14424 1 0 0
0.20068 -0.26263 -0.13547 0 0 0
0.20068 -0.24806 -0.14697 0 0 0
0.20068 -0.30835 -0.13995 1 0 0
0.20068 -0.38418 -0.16328 0 0 0
0.20068 -0.30929 -0.14567 1 0 0
0.20068 -0.28113 -0.14422 1 0 0
0.20068 -0.29206 -0.15032 1 0 0
-0.17888 0.34056 0.15269 0 0 0
-0.13561 -0.00486 0.15168 0 0 0
-0.19637 0.297 0.04025 0 0 0
-0.20385 0.35823 0.03103 0 0 0
-0.19812 0.31746 0.04792 0 0 0
-0.20084 0.34326 0.05031 0 0 0
-0.20219 0.34617 0.03551 0 0 0
-0.19102 0.25527 0.05017 0 0 0
-0.20072 0.39911 -0.10208 0 0 0
-0.19867 0.37826 0.03792 0 0 0
-0.18095 0.28806 0.13289 0 0 0
-0.1715 0.22176 0.13971 0 0 0
-0.18048 0.29177 0.13644 0 0 0
-0.17849 0.27555 0.13686 0 0 0
-0.16984 0.19336 0.1332 0 0 0
-0.18241 0.29441 0.13004 0 0 0
-0.16323 0.23669 -0.17199 0 0 0
-0.15523 0.17961 -0.17479 0 0 0
-0.16862 0.2867 -0.17379 0 0 0
-0.15269 0.13741 -0.16796 0 0 0
-0.15702 0.19772 -0.17587 0 0 0
-0.17432 0.33947 -0.17567 0 0 0
-0.1478 0.10186 -0.16946 0 0 0
-0.16952 0.2938 -0.17369 0 0 0
-0.15669 0.18419 -0.1724 0 0 0
-0.1672 0.26298 -0.16993 0 0 0
-0.16796 0.27165 -0.17071 0 0 0
-0.18523 0.38522 -0.16156 0 0 0
-0.16914 0.29854 -0.17623 0 0 0
-0.16431 0.26737 -0.17897 0 0 0
-0.17987 0.38943 -0.17705 0 0 0
-0.17784 0.17383 -0.0155 0 0 0
-0.16712 -0.02459 -0.00661 0 0 0
-0.17617 0.16089 -0.02321 0 0 0
-0.15175 0.02252 0.15279 0 0 0
-0.18421 -0.22244 0.16588 0 0 0
-0.16163 -0.03843 0.15128 0 0 0
-0.1655 -0.0783 0.15714 0 0 0
-0.17193 -0.13749 0.16404 0 0 0
-0.15523 0.00845 0.14926 0 0 0
-0.16843 -0.10985 0.16212 0 0 0
-0.17693 -0.17513 0.16602 0 0 0
-0.14986 0.03798 0.15153 0 0 0
-0.18348 -0.21193 0.16356 0 0 0
-0.15894 -0.06678 0.16983 0 0 0
-0.15685 -0.01458 0.15428 0 0 0
-0.17875 -0.18896 0.16678 0 0 0
-0.16521 -0.10631 0.16921 0 0 0
-0.14987 0.0159 0.16042 0 0 0
-0.18182 -0.19298 0.1603 0 0 0
-0.19625 -0.2898 0.16124 0 0 0
-0.15276 -0.02667 0.16996 0 0 0
-0.13234 -0.01781 0.14639 0 0 0
-0.1826 0.33391 0.10004 0 0 0
-0.15768 0.00549 -0.03337 0 0 0
-0.1564 0.33087 0.17146 0 0 0
-0.13067 0.04383 0.14952 0 0 0
-0.13214 0.04678 0.14657 0 0 0
-0.13687 0.12145 0.15747 0 0 0
-0.12227 0.01909 0.16398 0 0 0
-0.13938 0.17769 0.16845 0 0 0
-0.13775 0.113 0.15248 0 0 0
-0.15394 0.32437 0.17592 0 0 0
-0.1416 0.1419 0.15137 0 0 0
-0.12681 -0.00263 0.14519 0 0 0
-0.12804 -0.00953 0.13975 0 0 0
-0.12479 0.02358 0.15873 0 0 0
-0.12832 0.03698 0.15361 0 0 0
-0.12347 -0.0061 0.1529 0 1 0
-0.12987 0.03099 0.14762 0 0 0
-0.13422 0.05613 0.144 0 0 0
-0.14895 0.24622 0.16464 0 0 0
-0.12562 0.03838 0.16118 0 0 0
-0.12575 0.01321 0.15294 0 0 0
-0.17669 0.21743 -0.11861 0 0 0
-0.18465 0.29007 -0.12046 0 0 0
-0.18941 0.33649 -0.12328 0 0 0
-0.17787 0.22451 -0.11677 0 0 0
-0.17601 0.20216 -0.11324 0 0 0
-0.17939 0.24804 -0.12262 0 0 0
-0.19398 0.37925 0.12185 0 0 0
0.09331 -0.06243 0.01117 0 -1 0
0.08025 -0.06243 -0.01707 0 -1 0
0.15988 -0.06243 0.11551 0 -1 0
0.15185 -0.06243 -0.05904 0 -1 0
0.03692 -0.06243 0.10436 0 -1 0
0.10003 -0.06243 -0.00049 0 -1 0
0.15005 -0.06243 -0.09028 0 -1 0
0.00174 -0.06243 0.03164 0 -1 0
0.14462 -0.06243 -0.11708 0 -1 0
0.05003 -0.06243 -0.03065 0 -1 0
0.12191 -0.06243 -0.09484 0 -1 0
0.0097 -0.06243 0.07954 0 -1 0
0.10816 -0.06243 0.00737 0 -1 0
0.14151 -0.06243 0.05968 0 -1 0
0.10944 -0.06243 -0.01896 0 -1 0
0.02252 -0.06243 0.01839 0 -1 0
0.08171 -0.06243 0.07241 0 -1 0
0.10902 -0.06243 -0.03694 0 -1 0
0.00551 -0.06243 0.03524 0 -1 0
-0.0177 -0.06243 0.09388 0 -1 0
0.06495 -0.06243 0.04906 0 -1 0
0.1595 -0.06243 0.09043 0 -1 0
0.10948 -0.06243 0.0456 0 -1 0
0.05826 -0.06243 0.0839 0 -1 0
-0.02844 -0.06243 0.12623 0 -1 0
-0.05349 -0.06243 0.14509 0 -1 0
-0.02509 -0.06243 0.11102 0 -1 0
0.1011 -0.06243 -0.04042 0 -1 0
0.02808 -0.06243 0.05765 0 -1 0
0.15226 -0.06243 -0.07149 0 -1 0
0.12981 -0.06243 0.13722 0 -1 0
0.15535 -0.06243 -0.10071 0 -1 0
0.11121 -0.06243 -0.00719 0 -1 0
0.15094 -0.06243 -0.14022 0 -1 0
0.11706 -0.06243 -0.08628 0 -1 0
0.14147 -0.06243 0.04569 0 -1 0
0.08689 -0.06243 -0.06837 0 -1 0
0.16793 -0.06243 0.05794 0 -1 0
0.12555 -0.06243 -0.11255 0 -1 0
0.09758 -0.06243 0.01886 0 -1 0
0.14496 -0.06243 0.1012 0 -1 0
0.09405 -0.06243 0.10225 0 -1 0
0.01267 -0.06243 0.07504 0 -1 0
0.1264 -0.06243 0.07657 0 -1 0
0.08401 -0.06243 -0.02443 0 -1 0
0.16096 -0.06243 0.02715 0 -1 0
0.0978 -0.06243 0.13654 0 -1 0
0.10319 -0.06243 -0.00757 0 -1 0
0.08887 -0.06243 -0.01271 0 -1 0
0.07801 -0.06243 0.1021 0 -1 0
0.07996 -0.06243 0.07892 0 -1 0
0.12677 -0.06243 0.10972 0 -1 0
0.05671 -0.06243 0.06991 0 -1 0
0.16802 -0.06243 -0.04049 0 -1 0
-0.03539 -0.06243 0.13222 0 -1 0
0.16042 -0.06243 0.13148 0 0 0
0.11588 -0.06243 0.06987 0 -1 0
-0.00404 -0.06243 0.1323 0 -1 0
0.10623 -0.06243 -0.08771 0 -1 0
0.12375 -0.06243 -0.0399 0 -1 0
0.0961 -0.06243 0.06435 0 -1 0
0.13156 -0.06243 -0.11908 0 -1 0
0.09923 -0.06243 -0.05696 0 -1 0
0.00169 -0.06243 0.09007 0 -1 0
0.07282 -0.06243 0.11904 0 -1 0
0.12137 -0.06243 0.07679 0 -1 0
0.02523 -0.06243 0.10654 0 -1 0
0.16707 -0.06243 -0.06172 0 -1 0
0.16698 -0.06243 0.04645 0 -1 0
0.06507 -0.06243 0.02229 0 -1 0
0.15207 -0.06243 0.01821 0 -1 0
0.00213 -0.06243 0.07327 0 -1 0
0.09726 -0.06243 0.14139 0 -1 0
0.14699 -0.06243 -0.01126 0 -1 0
0.16215 -0.06243 -0.13892 0 -1 0
0.07658 -0.06243 0.04981 0 -1 0
0.05389 -0.06243 0.09904 0 -1 0
0.02694 -0.06243 0.0246 0 -1 0
-0.01885 -0.06243 0.0761 0 -1 0
0.14166 -0.06243 -0.03115 0 -1 0
0.11757 -0.06243 -0.07024 0 -1 0
0.08892 -0.06243 -0.02479 0 -1 0
0.06589 -0.06243 -0.04177 0 -1 0
0.13759 -0.06243 -0.12554 0 -1 0
0.02502 -0.06243 0.04732 0 -1 0
0.09025 -0.06243 0.09325 0 -1 0
0.01818 -0.06243 0.11394 0 -1 0
0.04116 -0.06243 0.13129 0 -1 0
-0.01188 -0.06243 0.06205 0 -1 0
-0.06184 -0.06243 0.12176 0 -1 0
0.08955 -0.06243 0.10235 0 -1 0
-0.01479 -0.06243 0.10002 0 -1 0
0.02422 -0.06243 0.01304 0 -1 0
0.15856 -0.06243 -0.04384 0 -1 0
0.11523 -0.06243 0.12467 0 -1 0
0.13493 -0.06243 0.13143 0 -1 0
0.11134 -0.06243 -0.09878 0 -1 0
0.13122 -0.06243 0.11613 0 -1 0
-0.10308 -0.06243 0.1632 0 -1 0
-0.00879 -0.06243 0.14237 0 -1 0
-0.04905 -0.06243 0.11804 0 -1 0
0.09398 -0.06243 -0.0549 0 -1 0
0.15588 -0.06243 -0.02951 0 -1 0
0.12455 -0.06243 0.14081 0 -1 0
0.13032 -0.06243 -0.05833 0 -1 0
0.09212 -0.06243 -0.03814 0 -1 0
0.03412 -0.06243 0.03156 0 -1 0
-0.0892 -0.06243 0.12803 0 -1 0
0.10289 -0.06243 0.01214 0 -1 0
0.14306 -0.06243 0.05136 0 -1 0
0.15848 -0.06243 -0.14523 0 -1 0
0.06418 -0.06243 -0.03002 0 -1 0
-0.04115 -0.06243 0.09381 0 -1 0
0.04133 -0.06243 0.03172 0 -1 0
0.10836 -0.06243 -0.0947 0 -1 0
-0.19155 0.37628 0.08225 0 0 0
-0.14096 -0.06243 0.04034 0 -1 0
-0.13923 -0.06243 0.11797 0 -1 0
-0.13814 -0.06243 0.12864 0 -1 0
-0.14392 -0.06243 -0.00458 0 -1 0
-0.16255 -0.02886 0.06516 0 0 0
-0.19324 0.37979 -0.12896 0 0 0
-0.14491 -0.00143 0.11824 0 0 0
-0.13329 0.01029 -0.10609 0 1 0
-0.13238 0.01029 -0.12867 0 0 0
-0.12967 0.01029 0.01082 0 0 0
-0.17058 0.20237 0.08824 0 0 0
-0.17603 0.24097 0.08354 0 0 0
-0.17694 0.27159 0.09435 0 0 0
-0.17958 0.29117 0.09251 0 0 0
-0.17834 0.27116 0.08819 0 0 0
-0.18266 0.32575 0.09596 0 0 0
-0.06055 -0.01781 0.16554 0 0 1
-0.16427 0.26372 -0.13167 0 0 0
-0.1704 0.28625 -0.12244 0 0 0
-0.17194 0.30222 -0.12333 0 0 0
-0.16136 0.22644 -0.12782 0 0 0
-0.16781 0.27545 -0.12595 0 0 0
-0.16427 0.2507 -0.12763 0 0 0
-0.18357 0.29025 0.07499 0 0 0
-0.20634 0.3756 -0.02207 0 0 0
0.20068 -0.05871 -0.14163 0 0 0
0.20068 -0.1332 -0.15758 1 0 0
0.20068 -0.11622 -0.14787 1 0 0
0.20068 -0.05003 -0.15352 1 0 0
0.20068 -0.09495 -0.15086 1 0 0
0.20068 -0.03253 -0.14949 1 0 0
0.20068 -0.16898 -0.16056 1 0 0
0.20068 -0.09292 -0.1573 1 0 0
0.20068 -0.03441 -0.16299 0 0 0
0.20068 -0.24505 -0.16213 0 0 0
0.20068 -0.08921 -0.14405 0 0 0
0.20068 -0.02965 -0.15437 1 0 0
0.20068 -0.07954 -0.16494 0 0 0
0.20068 -0.15142 -0.15052 1 0 0
0.20068 -0.05421 -0.16389 0 0 0
-0.15196 0.1546 0.13248 0 0 0
-0.16054 -0.01781 0.06531 0 0 0
-0.08736 0.01029 0.10912 0 1 0
0.01605 0.01029 0.10001 0 1 0
-0.09976 0.01029 0.05641 0 1 0
0.12996 0.01029 0.13137 0 1 0
0.05863 0.01029 0.17399 0 0 0
0.13381 0.01029 0.13999 0 1 0
-0.05033 0.01029 0.06748 0 1 0
-0.01068 0.01029 0.14033 0 1 0
0.04463 0.01029 0.04218 0 1 0
0.0047 0.01029 0.12117 0 1 0
0.13135 0.01029 0.10214 0 0 0
-0.07559 0.01029 0.02702 0 1 0
-0.07431 0.01029 0.12169 0 1 0
0.13491 0.01029 0.146 0 1 0
-0.06603 0.01029 0.1054 0 1 0
-0.08294 0.01029 0.11058 0 1 0
-0.09186 0.01029 -0.01171 0 1 0
0.03755 0.01029 0.09483 0 1 0
-0.04444 0.01029 -0.0515 0 1 0
-0.07169 0.01029 -0.05277 0 1 0
0.01455 0.01029 9e-05 0 1 0
0.1415 0.01029 0.16414 0 1 0
0.12879 0.01029 0.09433 0 1 0
0.01419 0.01029 0.14794 0 1 0
0.0173 0.01029 0.11175 0 1 0
-0.11528 0.01029 -0.06846 0 1 0
-0.01993 0.01029 0.06913 0 1 0
-0.04852 0.01029 0.12377 0 1 0
-0.12341 0.01029 0.045 0 1 0
0.03808 0.01029 0.06662 0 1 0
-0.12477 0.01029 0.17387 0 0 0
0.08154 0.01029 0.04709 0 0 0
0.08231 0.01029 0.16649 0 1 0
0.06365 0.01029 0.16462 0 1 0
0.15952 0.01029 0.17009 0 1 0
-0.09189 0.01029 -0.0615 0 1 0
-0.11109 0.01029 0.10524 0 1 0
-0.11585 0.01029 0.10776 0 1 0
-0.02037 0.01029 -0.01636 0 1 0
0.05141 0.01029 0.01105 0 0 0
-0.06965 0.01029 -0.04786 0 1 0
0.04428 0.01029 0.1202 0 1 0
-0.08885 0.01029 -0.08048 0 1 0
-0.08283 0.01029 0.17445 0 0 0
-0.08396 0.01029 -0.10926 0 1 0
-0.06486 0.01029 -0.08557 0 1 0
0.01274 0.01029 0.05926 0 1 0
-0.03716 0.01029 0.12999 0 1 0
0.08968 0.01029 0.06003 0 0 0
-0.02111 0.01029 0.12798 0 1 0
0.0135 0.01029 0.06488 0 1 0
-0.09368 0.01029 0.08656 0 1 0
-0.10222 0.01029 0.16828 0 1 0
0.0259 0.01029 0.07976 0 1 0
0.01117 0.01029 0.17107 0 1 0
-0.07247 0.01029 0.15336 0 1 0
-0.08704 0.01029 0.07403 0 1 0
0.15529 0.01029 0.13505 0 1 0
-0.07534 0.01029 0.06384 0 1 0
-0.10695 0.01029 0.07773 0 1 0
0.08374 0.01029 0.05778 0 1 0
-0.02011 0.01029 0.14507 0 1 0
-0.09552 0.01029 -0.13362 0 0 0
0.11991 0.01029 0.15023 0 1 0
0.13283 0.01029 0.1261 0 1 0
-0.04722 0.01029 0.06338 0 1 0
0.15614 0.01029 0.14467 0 1 0
-0.01186 0.01029 -0.00597 0 1 0
0.00684 0.01029 0.00272 0 1 0
0.08708 0.01029 0.13169 0 1 0
-0.09559 0.01029 0.1739 0 0 0
0.103 0.01029 0.14623 0 1 0
-0.09484 0.01029 0.12068 0 1 0
0.06669 0.01029 0.10609 0 1 0
-0.09419 0.01029 0.07244 0 1 0
0.14346 0.01029 0.12102 0 1 0
-0.02915 0.01029 0.09548 0 1 0
0.13554 0.01029 0.11087 0 0 0
-0.04168 0.01029 -0.02755 0 1 0
0.0176 0.01029 0.04608 0 1 0
-0.12244 0.01029 -0.12198 0 1 0
-0.05337 0.01029 -0.07616 0 1 0
-0.02298 0.01029 -0.02399 0 1 0
0.14264 0.01029 0.10673 0 0 0
-0.00632 0.01029 0.1495 0 1 0
-0.07135 0.01029 0.01633 0 1 0
0.02697 0.01029 0.15992 0 1 0
0.1638 0.01029 0.17309 0 1 0
0.12943 0.01029 0.16151 0 1 0
0.01062 0.01029 0.03776 0 1 0
-0.11146 0.01029 -0.06429 0 1 0
-0.12122 0.01029 -0.04418 0 1 0
-0.0621 0.01029 0.03008 0 1 0
-0.05558 0.01029 0.14774 0 1 0
-0.07549 0.01029 -0.01593 0 1 0
0.07572 0.01029 0.07435 0 1 0
0.04125 0.01029 0.01621 0 1 0
0.01132 0.01029 0.08424 0 1 0
-0.09217 0.01029 0.09692 0 1 0
-0.08048 0.01029 0.04532 0 1 0
0.0747 0.01029 0.16454 0 1 0
0.01739 0.01029 0.05078 0 1 0
-0.12261 0.01029 -0.05082 0 1 0
0.00782 0.01029 -0.02519 0 1 0
-0.082 0.01029 -0.01085 0 1 0
-0.06525 0.01029 0.02331 0 1 0
-0.03947 0.01029 -0.06617 0 1 0
-0.0166 0.01029 0.02738 0 1 0
-0.0222 0.01029 -0.04776 0 1 0
-0.06034 0.01029 -0.06793 0 1 0
0.01239 0.01029 0.02399 0 1 0
-0.06886 0.01029 -0.06299 0 1 0
-0.09934 0.01029 -0.00606 0 1 0
0.03585 0.01029 0.17313 0 0 0
-0.05139 0.01029 -0.01237 0 1 0
-0.03019 0.01029 -0.04895 0 1 0
-0.0923 0.01029 -0.13889 0 0 0
-0.08076 0.01029 0.00873 0 1 0
-0.08263 0.01029 0.05478 0 1 0
0.07541 0.01029 0.13264 0 1 0
0.10499 0.01029 0.10349 0 1 0
-0.10929 0.01029 0.01518 0 1 0
-0.03812 0.01029 0.06372 0 1 0
-0.09329 0.01029 -0.1034 0 1 0
0.09709 0.01029 0.11562 0 1 0
0.08956 0.01029 0.17464 0 0 0
0.1589 0.01029 0.12807 0 1 0
-0.10168 0.01029 -0.03932 0 1 0
-0.03263 0.01029 0.04994 0 1 0
-0.08468 0.01029 0.0184 0 1 0
-0.02443 0.01029 0.01962 0 1 0
0.20158 0.01029 0.166 0 0 0
-0.10334 0.01029 0.02807 0 1 0
0.16766 0.01029 0.13625 0 1 0
-0.10565 0.01029 -0.09317 0 1 0
-0.1202 0.01029 -0.15199 0 0 0
0.10576 0.01029 0.1283 0 1 0
-0.09293 0.01029 0.06666 0 1 0
-0.11771 0.01029 -0.10225 0 1 0
-0.05447 0.01029 -0.00389 0 1 0
-0.05113 0.01029 0.05006 0 1 0
0.02267 0.01029 0.11582 0 1 0
0.07945 0.01029 0.09624 0 1 0
-0.07005 0.01029 0.17043 0 0 0
-0.10777 0.01029 0.16787 0 1 0
0.10829 0.01029 0.12196 0 1 0
-0.0961 0.01029 0.1473 0 1 0
0.0079 0.01029 0.07818 0 1 0
-0.10521 0.01029 -0.15288 0 0 0
0.157 0.01029 0.13893 0 1 0
-0.002 0.01029 0.09145 0 1 0
0.05118 0.01029 0.06826 0 1 0
0.0344 0.01029 0.1308 0 1 0
-0.09394 0.01029 0.042 0 1 0
-0.11579 0.01029 0.00313 0 1 0
-0.10034 0.01029 -0.02868 0 1 0
-0.00175 0.01029 0.07787 0 1 0
-0.08692 0.01029 -0.12201 0 0 0
0.12552 0.01029 0.13633 0 1 0
-0.05923 0.01029 -0.08852 0 1 0
-0.11749 0.01029 -0.03053 0 1 0
-0.07071 -0.06243 -0.02319 0 -1 0
-0.11484 -0.06243 -0.15732 0 -1 0
-0.02531 -0.06243 -0.03489 0 -1 0
0.00266 -0.06243 -0.12763 0 -1 0
-0.04638 -0.06243 -0.14017 0 -1 0
-0.11351 -0.06243 0.03033 0 -1 0
-0.08568 -0.06243 0.10539 0 -1 0
-0.12008 -0.06243 -0.1552 0 -1 0
-0.07605 -0.06243 0.07021 0 -1 0
-0.08293 -0.06243 0.04714 0 -1 0
-0.0901 -0.06243 0.12157 0 -1 0
-0.08865 -0.06243 0.02904 0 -1 0
0.0424 -0.06243 -0.08019 0 -1 0
-0.00592 -0.06243 -0.12696 0 -1 0
0.04669 -0.06243 -0.07063 0 -1 0
0.05453 -0.06243 -0.10026 0 -1 0
0.07557 -0.06243 -0.16097 0 0 0
0.08077 -0.06243 -0.10575 0 -1 0
0.01399 -0.06243 -0.14049 0 -1 0
0.1312 -0.06243 -0.12328 0 -1 0
-0.08701 -0.06243 0.06136 0 -1 0
-0.04179 -0.06243 -0.1374 0 -1 0
-0.07567 -0.06243 0.10469 0 -1 0
-0.11424 -0.06243 0.14719 0 -1 0
-0.06708 -0.06243 0.01796 0 -1 0
0.11635 -0.06243 -0.14158 0 -1 0
0.0214 -0.06243 -0.16038 0 -1 0
-0.01845 -0.06243 -0.00656 0 -1 0
-0.03781 -0.06243 0.01254 0 -1 0
0.00844 -0.06243 -0.00538 0 -1 0
0.01348 -0.06243 -0.01284 0 -1 0
-0.06119 -0.06243 -0.14894 0 -1 0
-0.08335 -0.06243 -0.03257 0 -1 0
-0.05023 -0.06243 -0.11402 0 -1 0
-0.04792 -0.06243 -0.08848 0 -1 0
-0.08333 -0.06243 -0.03913 0 -1 0
0.07434 -0.06243 -0.12442 0 -1 0
-0.00636 -0.06243 -0.16433 0 -1 0
0.01819 -0.06243 -0.03589 0 -1 0
-0.07129 -0.06243 0.02858 0 -1 0
0.02698 -0.06243 -0.0423 0 -1 0
0.0916 -0.06243 -0.1649 0 0 0
-0.04864 -0.06243 -0.11931 0 -1 0
-0.12169 -0.06243 0.14705 0 0 0
-0.0089 -0.06243 -0.01066 0 -1 0
0.03578 -0.06243 -0.09048 0 -1 0
0.12782 -0.06243 -0.16242 0 -1 0
-0.10352 -0.06243 -0.09076 0 -1 0
-0.10057 -0.06243 0.0159 0 -1 0
-0.09245 -0.06243 -0.08237 0 -1 0
-0.11272 -0.06243 0.05911 0 -1 0
-0.06223 -0.06243 -0.0968 0 -1 0
0.04726 -0.06243 -0.12302 0 -1 0
-0.02813 -0.06243 0.04435 0 -1 0
0.0125 -0.06243 -0.07306 0 -1 0
-0.0384 -0.06243 -0.11137 0 -1 0
0.01035 -0.06243 -0.02312 0 -1 0
-0.03007 -0.06243 0.0255 0 -1 0
-0.0202 -0.06243 0.0357 0 -1 0
-0.01664 -0.06243 -0.04344 0 -1 0
-0.02033 -0.06243 0.04636 0 -1 0
-0.07663 -0.06243 -0.14547 0 -1 0
-0.04412 -0.06243 -0.02383 0 -1 0
-0.07953 -0.06243 0.04225 0 -1 0
-0.12409 -0.06243 0.03139 0 -1 0
-0.0261 -0.06243 0.03144 0 -1 0
0.03408 -0.06243 -0.07554 0 -1 0
0.06393 -0.06243 -0.13828 0 -1 0
-0.05391 -0.06243 -0.11717 0 -1 0
-0.10983 -0.06243 0.0135 0 -1 0
-0.01461 -0.06243 0.00973 0 -1 0
-0.05178 -0.06243 -0.0006 0 -1 0
-0.05242 -0.06243 0.053 0 -1 0
-0.0249 -0.06243 -0.1069 0 -1 0
-0.10048 -0.06243 -0.13801 0 -1 0
0.07568 -0.06243 -0.07086 0 -1 0
0.0121 -0.06243 -0.03041 0 -1 0
0.09982 -0.06243 -0.08829 0 -1 0
-0.11946 -0.06243 0.0645 0 -1 0
-0.10118 -0.06243 0.00791 0 -1 0
-0.07789 -0.06243 -0.13406 0 -1 0
-0.04147 -0.06243 -0.00453 0 -1 0
0.02866 -0.06243 -0.00842 0 -1 0
-0.04704 -0.06243 -0.07092 0 -1 0
-0.02525 -0.06243 -0.08288 0 -1 0
-0.00928 -0.06243 -0.04813 0 -1 0
-0.08979 -0.06243 -0.13136 0 -1 0
0.00694 -0.06243 -0.07302 0 -1 0
-0.05366 -0.06243 -0.0557 0 -1 0
-0.04004 -0.06243 -0.08726 0 -1 0
-0.05155 -0.06243 -0.01808 0 -1 0
-0.01601 -0.06243 -0.10631 0 -1 0
-0.06713 -0.06243 -0.01901 0 -1 0
-0.08942 -0.06243 -0.13954 0 -1 0
0.02147 -0.06243 -0.05161 0 -1 0
-0.0917 -0.06243 0.04573 0 -1 0
-0.01055 -0.06243 -0.14413 0 -1 0
0.02724 -0.06243 -0.05575 0 -1 0
0.09866 -0.06243 -0.12003 0 -1 0
-0.12246 -0.06243 0.10646 0 -1 0
-0.10287 -0.06243 0.03187 0 -1 0
0.0671 -0.06243 -0.05913 0 -1 0
0.04295 -0.06243 -0.05035 0 -1 0
-0.02509 -0.06243 -0.16342 0 0 0
-0.01822 -0.06243 -0.04738 0 -1 0
-0.02202 -0.06243 -0.01429 0 -1 0
-0.11298 -0.06243 -0.11877 0 -1 0
-0.09114 -0.06243 -0.01184 0 -1 0
-0.11913 -0.06243 -0.05727 0 -1 0
0.02153 -0.06243 -0.14208 0 -1 0
-0.01092 -0.06243 -0.10425 0 -1 0
-0.06733 -0.06243 -0.15717 0 -1 0
-0.10275 -0.06243 -0.12918 0 -1 0
-0.08218 -0.06243 0.09041 0 -1 0
-0.00386 -0.06243 -0.02883 0 -1 0
-0.05294 -0.06243 -0.14749 0 -1 0
0.0202 -0.06243 -0.04261 0 -1 0
0.13554 -0.06243 -0.16317 0 -1 0
-0.03376 -0.06243 -0.05612 0 -1 0
-0.02498 -0.06243 -0.12549 0 -1 0
-0.12185 -0.06243 0.04483 0 -1 0
0.03636 -0.06243 -0.11036 0 -1 0
-0.09368 -0.06243 0.10608 0 -1 0
-0.07957 -0.06243 0.02151 0 -1 0
0.1154 -0.06243 -0.16337 0 0 0
-0.08826 -0.06243 -0.0175 0 -1 0
-0.08292 -0.06243 -0.16109 0 0 -1
-0.11609 -0.06243 -0.14058 0 -1 0
-0.06933 -0.06243 0.0837 0 -1 0
-0.05968 -0.06243 -0.022 0 -1 0
-0.07374 -0.06243 -0.11829 0 -1 0
-0.104 -0.06243 0.0953 0 -1 0
-0.03529 -0.06243 -0.03346 0 -1 0
-0.10811 -0.06243 0.11993 0 -1 0
-0.18297 0.39822 0.1544 0 0 0
-0.13643 -0.08596 -0.14464 0 0 0
-0.13378 -0.08915 -0.15292 0 0 0
-0.1568 -0.24491 -0.15496 0 0 0
-0.13064 -0.08438 -0.1593 0 0 0
-0.14869 -0.19652 -0.15686 0 0 0
-0.15003 -0.1796 -0.14649 0 0 0
-0.13855 -0.11547 -0.15096 0 0 0
-0.1223 -0.02932 -0.15912 0 0 -1
-0.13758 -0.09083 -0.14357 0 0 0
-0.13937 -0.14297 -0.15987 0 0 0
-0.15844 -0.24487 -0.15063 0 0 0
-0.12937 -0.04023 -0.14483 0 0 0
-0.15522 -0.21901 -0.1487 0 0 0
-0.14336 -0.12082 -0.1404 0 0 0
-0.14654 -0.17155 -0.15247 0 0 0
-0.12569 -0.05043 -0.15867 0 0 0
-0.17745 0.19211 -0.04563 0 0 0
-0.15633 0.18503 0.12803 0 0 0
-0.15716 0.20628 0.13243 0 0 0
-0.15925 0.24119 0.13771 0 0 0
-0.1648 0.27913 0.13482 0 0 0
-0.15871 0.20509 0.12795 0 0 0
-0.16253 0.24468 0.13013 0 0 0
-0.16978 0.15899 -0.11961 0 0 0
-0.16407 -0.06243 -0.02166 0 -1 0
-0.15893 0.21721 -0.14441 0 0 0
-0.17668 0.30137 -0.15151 0 0 0
-0.16709 0.22786 -0.14756 0 0 0
-0.16603 0.20932 -0.14709 0 0 0
0.1758 -0.01781 -0.13848 0 0 0
-0.15016 -0.014 0.09475 0 0 0
-0.1455 -0.01363 0.11558 0 0 0
-0.17283 0.18135 0.11429 0 0 0
-0.13738 -0.04427 0.15976 0 0 0
-0.13914 -0.03767 0.15511 0 0 0
-0.1533 -0.01781 -0.06957 0 0 0
-0.1558 -0.01781 -0.09394 0 0 0
-0.18794 0.29268 0.05055 0 0 0
-0.15467 0.15793 0.12401 0 0 0
-0.20217 0.38034 0.0756 0 0 0
-0.16835 0.28269 -0.14825 0 0 0
-0.16094 0.26709 -0.14537 0 0 0
-0.17214 0.31058 -0.14981 0 0 0
-0.15487 0.0086 -0.06202 0 0 0
-0.15184 0.00911 -0.08117 0 0 0
-0.18858 0.27436 -0.02381 0 0 0
-0.18285 0.16298 0.00997 0 0 0
-0.1466 -0.00975 -0.10754 0 0 0
-0.16517 0.25372 -0.14693 0 0 0
-0.15578 -0.00637 -0.05343 0 0 0
-0.19307 0.2542 -0.00945 0 0 0
-0.195 0.3811 -0.06746 0 0 0
-0.175 0.1652 0.04014 0 0 0
-0.13226 -0.00738 -0.15834 0 0 0
-0.18831 0.36613 0.13975 0 0 0
-0.17658 0.28507 0.14876 0 0 0
-0.15582 -0.04537 0.10017 0 0 0
-0.1587 -0.04961 0.08789 0 0 0
0.19448 -0.39668 0.16888 0 0 0
0.18991 -0.28255 0.16888 0 0 1
0.20039 -0.38534 0.16888 0 0 0
0.19503 -0.25523 0.16888 0 0 1
0.19 -0.37641 0.16888 0 0 1
0.19773 -0.27036 0.16888 0 0 1
0.19806 -0.29156 0.16888 0 0 0
0.18971 -0.2688 0.16888 0 0 1
0.19687 -0.39133 0.16888 0 0 1
0.18612 -0.20424 0.16888 0 0 1
0.1839 -0.33936 0.16888 0 0 1
0.1981 -0.08876 0.16888 0 0 0
0.19843 -0.09409 0.16888 0 0 0
0.19719 -0.3417 0.16888 0 0 0
0.17934 -0.34629 0.16888 0 0 0
0.18313 -0.29144 0.16888 0 0 1
0.18141 -0.31783 0.16888 0 0 1
-0.18014 0.25921 -0.12526 0 0 0
-0.17744 0.18296 -0.03546 0 0 0
-0.19086 0.29984 -0.02989 0 0 0
-0.18628 0.25462 -0.02582 0 0 0
-0.18752 0.26824 -0.02848 0 0 0
-0.18774 0.27339 -0.03194 0 0 0
-0.18529 0.24852 -0.02904 0 0 0
-0.12704 -0.01781 -0.16418 0 0 0
-0.13114 -0.01781 -0.13429 0 0 0
-0.13193 -0.01781 -0.05754 0 0 0
-0.12636 -0.01781 -0.15482 0 0 0
-0.16457 -0.11161 -0.14738 0 0 0
-0.15369 0.00091 -0.14326 0 0 0
-0.13795 -0.04147 -0.1373 0 0 0
-0.16636 -0.12396 -0.14806 0 0 0
-0.16322 -0.14708 -0.14687 0 0 0
-0.14506 -0.00781 -0.13999 0 0 0
-0.14616 0.01959 -0.14041 0 0 0
-0.1875 -0.26216 -0.15606 0 0 0
-0.19434 -0.30678 -0.15865 0 0 0
-0.16303 -0.03187 -0.1468 0 0 0
-0.14508 -0.05729 -0.14 0 0 0
-0.14028 -0.02913 -0.13819 0 0 0
-0.15017 0.00786 -0.14193 0 0 0
-0.20194 -0.35047 -0.16153 0 0 0
-0.18995 -0.23545 -0.15699 0 0 0
-0.13528 -0.0032 -0.13629 0 0 0
-0.18317 -0.18301 -0.15442 0 0 0
-0.18483 -0.2159 -0.15505 0 0 0
-0.19559 -0.31905 -0.15912 0 0 0
-0.15321 -0.11172 -0.14308 0 0 0
-0.1584 -0.07645 -0.14505 0 0 0
-0.20256 -0.32723 -0.16176 0 0 0
-0.17964 0.19476 0.08577 0 0 0
-0.19643 0.33723 0.08181 0 0 0
-0.18487 0.24009 0.08523 0 0 0
-0.19127 0.28806 0.07921 0 0 0
-0.18059 0.19759 0.08184 0 0 0
-0.19274 0.30755 -0.00785 0 0 0
-0.20559 0.36689 -0.01076 0 0 0
-0.1962 0.28251 -0.01036 0 0 0
-0.20302 0.34448 -0.01462 0 0 0
-0.19771 0.29581 -0.00932 0 0 0
-0.19915 0.30971 -0.0146 0 0 0
-0.18775 0.20514 -0.00213 0 0 0
-0.19897 0.31176 0.02664 0 0 0
-0.1405 -0.13976 0.15347 0 0 0
-0.15147 -0.20851 0.15223 0 0 0
-0.14723 -0.18738 0.15491 0 0 0
-0.13504 -0.07188 0.1405 0 0 0
-0.16149 -0.26624 0.14906 0 0 0
-0.15875 -0.2485 0.14913 0 0 0
-0.12756 -0.06755 0.1585 0 0 0
-0.138 -0.11486 0.15001 0 0 0
-0.1431 -0.1693 0.15852 0 0 0
-0.16139 -0.28024 0.15497 0 0 0
-0.12952 -0.06072 0.15059 0 0 0
-0.1416 -0.13487 0.1486 0 0 0
-0.16949 -0.32957 0.15347 0 0 0
-0.15582 -0.21865 0.14483 0 0 0
-0.13144 -0.05103 0.1416 0 0 0
-0.14916 -0.17148 0.14338 0 0 0
-0.16898 0.3221 0.13706 0 0 0
-0.1649 0.26981 0.13166 0 0 0
-0.17137 0.35133 0.1398 0 0 0
-0.17646 0.35177 0.12648 0 0 0
-0.17625 0.34426 0.12469 0 0 0
-0.17662 0.36661 0.13066 0 0 0
-0.16603 0.26323 0.12661 0 0 0
-0.16022 0.158 -0.10762 0 0 0
-0.13563 0.01029 0.10686 0 1 0
-0.13583 0.01029 -0.11055 0 1 0
-0.13695 0.01029 0.0151 0 1 0
-0.14203 0.01029 -0.08311 0 0 0
-0.18554 0.20275 0.04459 0 0 0
-0.2053 0.37874 0.04305 0 0 0
-0.1541 0.17594 -0.14241 0 0 0
-0.1348 -0.02053 -0.16342 0 0 0
-0.13577 -0.04766 -0.16084 0 0 0
-0.16851 0.17375 0.12943 0 0 0
-0.1553 0.23226 -0.14562 0 0 0
-0.12301 0.00973 -0.16123 0 0 0
-0.15258 0.2264 -0.15098 0 0 0
-0.14013 0.10082 -0.14454 0 0 0
-0.13581 0.09445 -0.15394 0 0 0
-0.12914 0.00767 -0.14437 0 0 0
-0.14008 0.1435 -0.15804 0 0 0
-0.14444 0.133 -0.14321 0 0 0
-0.15036 0.17995 -0.1423 0 0 0
-0.14792 0.17339 -0.14667 0 0 0
-0.14319 0.1387 -0.1483 0 0 0
-0.1673 0.34612 -0.1496 0 0 0
-0.15456 0.24072 -0.15024 0 0 0
-0.12613 0.02907 -0.15903 0 0 0
-0.15765 0.25016 -0.14503 0 0 0
-0.13907 0.12361 -0.15446 0 0 0
-0.12508 -0.01075 -0.14935 0 0 0
-0.12948 -0.00706 -0.13887 0 0 0
-0.18888 -0.40818 -0.18856 0 0 0
-0.16993 0.173 -0.07716 0 0 0
-0.18851 0.3472 0.13027 0 0 0
-0.18102 0.15789 0.0376 0 0 0
-0.18498 0.19306 -0.04006 0 0 0
-0.18615 0.20779 -0.04735 0 0 0
-0.19866 0.31993 -0.04766 0 0 0
-0.18457 0.19365 -0.04735 0 0 0
-0.18779 0.2197 -0.04256 0 0 0
-0.18759 0.21559 -0.03858 0 0 0
-0.19592 0.37239 0.0662 0 0 0
-0.17544 0.3031 -0.11224 0 0 0
-0.17796 0.34756 -0.12068 0 0 0
-0.17828 0.33745 -0.11582 0 0 0
-0.18208 0.35833 -0.11119 0 0 0
-0.16435 0.21974 -0.11728 0 0 0
-0.14215 -0.06236 -0.14399 0 0 0
-0.14124 -0.0426 -0.14639 0 0 0
-0.19347 0.3175 0.01862 0 0 0
-0.18567 0.24441 0.01234 0 0 0
-0.18117 0.20248 0.00936 0 0 0
-0.18513 0.24189 0.02013 0 0 0
-0.18198 0.21307 0.02005 0 0 0
-0.1695 0.17061 0.07762 0 0 0
-0.14015 -0.01781 0.12901 0 0 0
-0.14246 -0.01781 0.0072 0 0 0
-0.13688 -0.01781 0.10821 0 0 0
-0.20613 0.39012 0.04942 0 0 0
-0.17304 0.18257 -0.10888 0 0 0
0.06821 -0.04964 0.16888 0 0 1
0.02498 -0.05697 0.16888 0 0 1
0.13183 -0.04352 0.16888 0 0 1
0.06824 -0.03366 0.16888 0 0 1
0.0138 -0.0564 0.16888 0 0 1
-0.00717 -0.06012 0.16888 0 0 0
0.06109 -0.04095 0.16888 0 0 1
-0.02457 -0.06128 0.16888 0 0 0
0.06565 -0.05472 0.16888 0 0 1
0.07275 -0.03263 0.16888 0 0 1
0.15651 -0.05661 0.16888 0 0 0
0.04575 -0.052 0.16888 0 0 1
0.00359 -0.05612 0.16888 0 0 1
0.16024 -0.02722 0.16888 0 0 1
0.1549 -0.0486 0.16888 0 0 0
0.15133 -0.03496 0.16888 0 0 1
0.1673 -0.04719 0.16888 0 0 0
0.13944 -0.02679 0.16888 0 0 1
-0.18965 0.34022 0.07211 0 0 0
-0.18309 0.27079 0.06516 0 0 0
-0.17683 0.21126 0.06308 0 0 0
-0.17621 0.21715 0.07074 0 0 0
-0.17497 0.18357 0.05576 0 0 0
-0.17766 0.20969 0.05698 0 0 0
-0.18157 0.17163 0.05079 0 0 0
-0.19144 0.37271 0.09334 0 0 0
-0.17233 0.23186 0.14106 0 0 0
0.19277 -0.13987 0.13821 0 0 -1
0.19433 -0.32966 0.13821 0 0 -1
0.19278 -0.17245 0.13821 0 0 -1
0.18479 -0.09096 0.13821 0 0 -1
0.18781 -0.24555 0.13821 0 0 -1
0.18999 -0.18411 0.13821 0 0 -1
0.19802 -0.31593 0.13821 0 0 -1
0.19144 -0.25064 0.13821 0 0 -1
0.18427 -0.20549 0.13821 0 0 -1
0.19178 -0.2128 0.13821 0 0 -1
0.19428 -0.29931 0.13821 0 0 -1
0.20067 -0.27756 0.13821 0 0 0
0.19785 -0.25789 0.13821 0 0 -1
0.19313 -0.31968 0.13821 0 0 -1
-0.18538 0.37797 0.1075 0 0 0
0.00088 -0.01084 -0.17484 0 0 -1
-0.00898 -0.00209 -0.17484 0 0 -1
-0.02691 -0.0154 -0.17484 0 0 0
0.04413 -0.01094 -0.17484 0 0 -1
0.16565 -0.01773 -0.17484 0 0 0
-0.02295 -0.00057 -0.17484 0 0 -1
0.01427 -0.012 -0.17484 0 0 -1
0.03953 -0.00938 -0.17484 0 0 -1
-0.03103 -0.00148 -0.17484 0 0 -1
-0.09431 -0.01002 -0.17484 0 0 -1
0.00762 -0.01755 -0.17484 0 0 0
0.00647 -0.00618 -0.17484 0 0 -1
-0.11591 0.00877 -0.17484 0 0 0
-0.07622 0.00067 -0.17484 0 0 -1
-0.17192 0.1527 0.10276 0 0 0
0.19916 -0.01781 -0.16058 0 0 0
-0.19817 0.39863 -0.11515 0 0 0
-0.16362 0.16379 0.09838 0 0 0
-0.14284 0.14999 0.15062 0 0 0
-0.14094 0.13147 0.14985 0 0 0
-0.15154 0.26444 0.16351 0 0 0
-0.13591 0.056 0.1395 0 0 0
-0.15098 0.2159 0.14979 0 0 0
-0.15679 0.29138 0.15808 0 0 0
-0.14891 0.17415 0.14218 0 0 0
-0.14667 0.16872 0.14639 0 0 0
-0.17075 0.39982 0.15515 0 0 0
-0.15021 0.22181 0.15365 0 0 0
-0.14737 0.1858 0.14988 0 0 0
-0.16149 0.32102 0.15495 0 0 0
-0.15576 0.26715 0.1532 0 0 0
-0.16911 0.37091 0.15044 0 0 0
-0.16352 0.36686 0.16394 0 0 0
-0.16067 0.33483 0.16144 0 0 0
-0.1451 0.18249 0.15483 0 0 0
-0.14581 0.16458 0.14735 0 0 0
-0.18421 0.22901 -0.00571 0 0 0
-0.18947 0.27643 -0.00359 0 0 0
-0.18598 0.24383 -0.00105 0 0 0
-0.18664 0.25215 -0.00879 0 0 0
-0.19115 0.29094 -0.00098 0 0 0
0.01217 0.00011 0.178 0 0 0
-0.11169 0.00513 0.178 0 0 1
0.09651 0.00944 0.178 0 0 0
-0.10035 -0.01009 0.178 0 0 1
-0.06562 0.00177 0.178 0 0 1
-0.06802 -0.00527 0.178 0 0 0
0.0223 0.00083 0.178 0 0 0
0.00406 -0.00127 0.178 0 0 1
0.04869 -0.00035 0.178 0 0 0
-0.0819 -0.00642 0.178 0 0 0
-0.00363 -0.00025 0.178 0 0 1
-0.02076 0.00215 0.178 0 0 1
0.175 -0.37284 0.13821 0 0 -1
0.17883 -0.26405 0.13821 0 0 -1
0.17379 -0.20194 0.13821 0 0 -1
0.17567 -0.18926 0.13821 0 0 0
0.17081 -0.18613 0.13821 0 0 0
0.1845 -0.23792 0.13821 0 0 -1
0.17343 -0.23019 0.13821 0 0 -1
0.18761 -0.32842 0.13821 0 0 -1
0.19002 -0.38652 0.13821 0 0 -1
0.17546 -0.1473 0.13821 0 0 -1
0.17897 -0.31334 0.13821 0 0 -1
0.1993 -0.40786 0.13821 0 0 0
0.17492 -0.37822 0.13821 0 0 0
-0.18128 0.18141 -0.06583 0 0 0
0.20291 0.01029 -0.06069 0 1 0
0.1901 0.01029 0.04968 0 1 0
0.0392 0.01029 -0.08982 0 1 0
0.18372 0.01029 -0.14321 0 1 0
0.19014 0.01029 -0.16232 0 1 0
0.06845 0.01029 -0.15558 0 1 0
0.10276 0.01029 -0.09916 0 1 0
-0.04678 0.01029 -0.12379 0 1 0
0.0547 0.01029 -0.1383 0 1 0
0.20472 0.01029 -0.08648 0 0 0
0.01851 0.01029 -0.06258 0 1 0
0.10512 0.01029 -0.11408 0 1 0
0.20461 0.01029 -0.00043 0 0 0
0.03981 0.01029 -0.11033 0 1 0
0.1998 0.01029 0.0092 0 1 0
0.18666 0.01029 -0.07596 0 1 0
0.13534 0.01029 -0.06411 0 1 0
0.15252 0.01029 -0.11286 0 1 0
0.08809 0.01029 -0.08557 0 1 0
-0.11942 0.01029 -0.17023 0 0 0
0.17364 0.01029 0.097 0 1 0
0.09624 0.01029 -0.03388 0 1 0
0.08207 0.01029 -0.15858 0 1 0
0.1684 0.01029 -0.00548 0 1 0
0.07273 0.01029 -0.17395 0 0 -1
0.1909 0.01029 0.02901 0 1 0
0.09831 0.01029 -0.12416 0 1 0
0.13488 0.01029 0.08326 0 1 0
0.09038 0.01029 0.00405 0 1 0
0.12037 0.01029 0.01613 0 1 0
0.14756 0.01029 -0.15916 0 1 0
-0.07039 0.01029 -0.15077 0 1 0
0.1294 0.01029 -0.08522 0 1 0
0.14294 0.01029 0.05261 0 1 0
0.11955 0.01029 -0.17205 0 1 0
0.17894 0.01029 0.11723 0 1 0
0.0936 0.01029 -0.08132 0 1 0
0.13861 0.01029 -0.00664 0 1 0
0.07379 0.01029 -0.10363 0 1 0
0.19606 0.01029 -0.14914 0 1 0
0.10601 0.01029 -0.01302 0 1 0
0.01158 0.01029 -0.12035 0 1 0
-0.08513 0.01029 -0.17384 0 1 0
0.07168 0.01029 -0.05333 0 1 0
0.03483 0.01029 -0.16874 0 1 0
0.17441 0.01029 -0.13095 0 1 0
0.04628 0.01029 -0.05192 0 1 0
-0.05956 0.01029 -0.11677 0 0 0
0.12576 0.01029 0.05051 0 1 0
0.17885 0.01029 0.05112 0 1 0
0.11886 0.01029 0.05665 0 1 0
0.15905 0.01029 -0.01669 0 1 0
0.1501 0.01029 -0.13314 0 1 0
-0.06808 0.01029 -0.13386 0 1 0
0.03752 0.01029 -0.0634 0 1 0
0.20827 0.01029 0.00892 0 1 0
0.10187 0.01029 -0.17398 0 1 0
0.16253 0.01029 0.10207 0 1 0
-0.0061 0.01029 -0.07637 0 1 0
0.07709 0.01029 -0.1095 0 1 0
0.07957 0.01029 -0.07871 0 1 0
0.14278 0.01029 -0.05224 0 1 0
0.15737 0.01029 -0.11728 0 1 0
0.07432 0.01029 0.01412 0 1 0
0.15105 0.01029 0.00974 0 1 0
0.03954 0.01029 -0.00881 0 1 0
0.17643 0.01029 -0.08119 0 1 0
0.20925 0.01029 -0.00664 0 0 0
0.04937 0.01029 0.0059 0 0 0
0.15267 0.01029 -0.16638 0 0 0
0.12406 0.01029 0.03298 0 1 0
0.07969 0.01029 0.01565 0 1 0
0.1777 0.01029 -0.15637 0 1 0
0.11704 0.01029 0.0349 0 1 0
0.12802 0.01029 -0.12126 0 1 0
0.00542 0.01029 -0.1708 0 0 0
0.15821 0.01029 0.07564 0 1 0
0.0418 0.01029 -0.13421 0 1 0
0.09603 0.01029 -0.14745 0 1 0
0.19102 0.01029 0.08095 0 1 0
0.07248 0.01029 -0.15956 0 1 0
0.0928 0.01029 -0.16202 0 1 0
0.10883 0.01029 0.00151 0 1 0
0.05614 0.01029 -0.15024 0 1 0
-0.01577 0.01029 -0.11001 0 1 0
0.08404 0.01029 0.01498 0 1 0
-0.01126 0.01029 -0.06847 0 1 0
-0.04027 0.01029 -0.15783 0 1 0
0.19249 0.01029 0.0899 0 1 0
0.19665 0.01029 0.04304 0 1 0
-0.00565 0.01029 -0.06963 0 1 0
0.02411 0.01029 -0.09181 0 1 0
0.13117 0.01029 0.0646 0 1 0
0.00663 0.01029 -0.14015 0 1 0
0.12343 0.01029 0.02252 0 1 0
0.03475 0.01029 -0.01014 0 1 0
0.17283 0.01029 0.05652 0 1 0
-0.0241 0.01029 -0.12824 0 1 0
0.04478 0.01029 -0.02758 0 1 0
0.14459 0.01029 0.00662 0 1 0
-0.06389 0.01029 -0.15174 0 1 0
0.16552 0.01029 0.12143 0 1 0
0.13777 0.01029 0.00444 0 1 0
0.17389 0.01029 0.12355 0 1 0
0.07689 0.01029 -0.1391 0 1 0
0.19536 0.01029 0.13535 0 1 0
0.0996 0.01029 0.00928 0 1 0
0.13135 0.01029 -0.00686 0 1 0
0.00639 0.01029 -0.16598 0 0 0
0.18387 0.01029 0.05678 0 1 0
-0.0112 0.01029 -0.13828 0 1 0
0.20218 0.01029 -0.00917 0 1 0
0.19416 0.01029 -0.02145 0 1 0
0.12909 0.01029 -0.10729 0 1 0
0.02177 0.01029 -0.03359 0 1 0
-0.10403 0.01029 -0.16253 0 1 0
0.14839 0.01029 -0.14043 0 1 0
0.20729 0.01029 -0.01182 0 1 0
0.13661 0.01029 -0.11352 0 1 0
0.10258 0.01029 -0.10749 0 1 0
0.10819 0.01029 -0.0451 0 1 0
0.03984 0.01029 -0.0288 0 1 0
0.01732 0.01029 -0.04547 0 1 0
0.11594 0.01029 0.00933 0 1 0
0.01198 0.01029 -0.15604 0 1 0
0.12275 0.01029 -0.14419 0 1 0
0.15362 0.01029 -0.08308 0 1 0
0.07889 0.01029 -0.11649 0 1 0
0.04958 0.01029 -0.01985 0 1 0
-0.03283 0.01029 -0.1438 0 1 0
0.06458 0.01029 0.00446 0 1 0
0.14226 0.01029 -0.17367 0 1 0
0.17323 0.01029 -0.14218 0 1 0
0.01375 0.01029 -0.16775 0 0 0
0.03488 0.01029 -0.08818 0 1 0
0.12301 0.01029 0.06677 0 1 0
0.19527 0.01029 0.14798 0 1 0
0.15786 0.01029 0.11511 0 1 0
0.00681 0.01029 -0.10437 0 1 0
0.06598 0.01029 -0.03415 0 1 0
0.02834 0.01029 -0.16619 0 1 0
0.19711 0.01029 -0.11462 0 1 0
-0.06613 0.01029 -0.11718 0 0 0
0.17486 0.01029 -0.02039 0 1 0
0.13332 0.01029 -0.15981 0 1 0
0.06384 0.01029 -0.06793 0 1 0
0.21141 0.01029 -0.09323 0 0 0
0.13394 0.01029 -0.0028 0 1 0
0.03351 0.01029 -0.103 0 1 0
0.19709 0.01029 -0.16027 0 1 0
0.00969 0.01029 -0.07418 0 1 0
0.19375 0.01029 -0.10504 0 1 0
-0.07514 0.01029 -0.15347 0 1 0
0.20887 0.01029 -0.12535 0 0 0
-0.17969 0.25113 0.07251 0 0 0
-0.15814 -0.00263 -0.02629 0 0 0
-0.17474 0.17232 0.04961 0 0 0
-0.19468 0.38908 0.07451 0 0 0
